-0.086405700000000002 -0.49770799999999998 -0.0611178
-0.010014800000000001 -0.49908000000000002 0.062465100000000003
0.249026 0.373695 0.00090611200000000004
0.072949 0.367481 -0.15617600000000001
-0.180454 0.044935900000000001 0.063462000000000005
-0.095722299999999996 -0.0266675 -0.121279
-0.17857100000000001 0.024069799999999999 -0.016649899999999999
0.098846299999999998 -0.36833199999999999 0.063207899999999997
0.067408899999999994 0.058241800000000003 -0.24547099999999999
0.056757599999999998 -0.43296499999999999 0.083668500000000007
0.051895799999999999 0.0283027 -0.23220399999999999
0.100163 -0.30557099999999998 -0.088256000000000001
0.27718999999999999 0.35422599999999999 0.0058703699999999998
-0.273926 0.35082999999999998 -0.073749899999999993
0.18837799999999999 0.46069399999999999 -0.0057383599999999996
0.29164899999999999 0.347603 -0.095053799999999994
0.17443800000000001 -0.036147499999999999 0.13958599999999999
0.28593099999999999 0.110425 0.011972500000000001
-0.027440300000000001 0.18345500000000001 -0.25815500000000002
-0.11364 -0.38451200000000002 0.068806599999999996
-0.178345 -0.14134099999999999 -0.117839
-0.010236800000000001 -0.49973099999999998 0.10101599999999999
0.21551699999999999 0.32887899999999998 0.0385864
-0.044360700000000003 -0.0135353 -0.17668300000000001
-0.202103 0.14693800000000001 0.078546900000000003
-0.069467699999999993 -0.17657200000000001 -0.0157032
0.12612400000000001 -0.356817 -0.0055126200000000002
0.064346799999999996 -0.205845 -0.092910599999999996
-0.27759499999999998 0.14414199999999999 -0.0286479
-0.037944800000000001 -0.195774 -0.211229
0.085755700000000004 -0.49843500000000002 -0.035823500000000001
0.080065999999999998 -0.18900700000000001 0.16975899999999999
0.249084 0.063879900000000003 -0.113607
0.0105751 0.37601800000000002 0.134663
-0.21138299999999999 0.066357899999999997 -0.029280400000000002
0.010197299999999999 0.29300700000000002 0.21356900000000001
0.042984899999999999 -0.352435 -0.13828299999999999
-0.22226799999999999 -0.45272000000000001 -0.013917300000000001
0.163574 -0.25459300000000001 -0.020098399999999999
0.065994899999999995 -0.49867699999999998 -0.085604899999999998
-0.28836899999999999 0.25336900000000001 -0.117618
0.16120699999999999 -0.44561000000000001 -0.056880500000000001
0.13132099999999999 -0.34446100000000002 0.0094614299999999998
0.24149399999999999 0.22468099999999999 0.13753000000000001
-0.17278499999999999 0.29582599999999998 0.040579900000000002
-0.184001 -0.29207300000000003 0.058015799999999999
0.29565799999999998 0.28958400000000001 0.0281053
-0.24516199999999999 0.1036 -0.029234599999999999
-0.19639699999999999 0.043417999999999998 -0.19520199999999999
0.30183100000000002 0.31842799999999999 -0.078494599999999998
-0.30341299999999999 -0.13527 -0.20504500000000001
-0.028145099999999999 -0.49614900000000001 -0.094808799999999999
-0.036472600000000001 0.017733800000000001 -0.20966299999999999
0.099915699999999996 0.39993400000000001 -0.086557400000000007
-0.094813599999999998 0.050541299999999997 0.19350899999999999
0.00785924 -0.29526799999999997 -0.24252699999999999
-0.12545200000000001 -0.035643099999999997 0.070199499999999998
0.235406 0.32297100000000001 -0.12994600000000001
-0.31095699999999998 0.31706200000000001 -0.028883700000000002
-0.273036 -0.38134299999999999 -0.0848304
-0.23987700000000001 0.33046900000000001 -0.104833
0.256554 0.080309400000000003 0.13450000000000001
0.18962000000000001 0.45716600000000002 0.012552300000000001
0.114039 0.0240491 0.25316899999999998
-0.29702200000000001 0.34412799999999999 -0.030556300000000002
0.19000500000000001 0.41268100000000002 -0.10558099999999999
0.14827499999999999 -0.14136099999999999 0.085856000000000002
0.108596 -0.0060759999999999998 0.23505699999999999
-0.0019853900000000001 0.080944199999999994 0.28222399999999997
-0.212203 -0.30738799999999999 0.0513879
0.24654699999999999 0.0095327699999999994 0.071426000000000003
0.033012199999999998 -0.27408900000000003 0.16891600000000001
0.25665199999999999 0.022535800000000002 0.063213099999999994
0.169095 -0.184859 0.0264332
-0.17471300000000001 0.052887299999999998 0.0940299
0.21465799999999999 0.28415899999999999 0.13561599999999999
0.0266441 -0.10396 -0.064954499999999998
-0.0194334 -0.086156399999999994 0.118311
-0.025642999999999999 -0.48441099999999998 0.15143699999999999
-0.18933800000000001 -0.0177713 -0.14729200000000001
-0.21904599999999999 0.31321100000000002 -0.0114728
0.0012531 0.395928 -0.095669500000000005
-0.23810200000000001 0.20078199999999999 -0.0159252
-0.102423 0.107878 0.172456
-0.137491 0.30690200000000001 0.112645
0.28322000000000003 0.17882700000000001 -0.026414099999999999
0.31119400000000003 0.41497200000000001 -0.0015720899999999999
0.276615 0.063072799999999998 -0.0060626200000000003
-0.19589899999999999 -0.478964 -0.174787
0.14316100000000001 0.21199699999999999 -0.229601
-0.21576200000000001 0.077050400000000005 -0.20868400000000001
-0.11150599999999999 -0.248219 0.051965900000000002
0.30593500000000001 0.26480500000000001 -0.0289161
-0.19984099999999999 -0.49271799999999999 -0.083110299999999998
0.31552999999999998 0.38496900000000001 0.00066531299999999995
-0.24921199999999999 -0.427676 -0.097706600000000005
-0.21899199999999999 -0.29179300000000002 0.045151700000000003
-0.039947299999999998 -0.29589799999999999 0.12600800000000001
-0.15423100000000001 -0.49617800000000001 0.034437299999999997
0.10996400000000001 0.17471999999999999 -0.25068600000000002
0.026615400000000001 -0.33580700000000002 0.13956099999999999
-0.185087 -0.49363600000000002 -0.025947499999999998
-0.078152600000000003 0.289605 -0.20505799999999999
0.25711200000000001 0.19520899999999999 0.122793
-0.049269599999999997 -0.41567399999999999 -0.247699
-0.128779 -0.49768600000000002 -0.14790700000000001
0.269285 0.49890000000000001 -0.0153435
0.14061699999999999 -0.30909500000000001 0.083194500000000005
-0.040922399999999998 -0.176478 -0.157747
-0.136159 0.188637 0.169346
0.0186418 0.41248600000000002 -0.020380100000000002
-0.176284 0.13225799999999999 0.12375700000000001
-0.13481599999999999 0.0301371 -0.17586099999999999
0.20736299999999999 0.43675000000000003 -0.092206499999999997
0.18202099999999999 0.073137400000000005 0.22598699999999999
-0.21418100000000001 -0.139793 -0.24126900000000001
-0.00073256999999999999 0.23971400000000001 -0.25376100000000001
-0.26896999999999999 0.28794700000000001 -0.026152100000000001
0.27964 0.15743199999999999 -0.056062399999999998
-0.010075600000000001 -0.48374800000000001 -0.0221762
0.25158199999999997 0.23245099999999999 -0.115619
0.26522600000000002 0.040654900000000001 -0.033646299999999997
-0.276254 -0.11049200000000001 -0.181982
0.15049599999999999 -0.104643 0.0012705500000000001
-0.050407599999999997 -0.25627699999999998 -0.27496199999999998
0.15179100000000001 -0.49042200000000002 -0.034493700000000002
-0.20202899999999999 0.19498799999999999 0.0619462
-0.050099699999999997 0.26431100000000002 0.21215700000000001
-0.0819024 -0.231373 -0.27423700000000001
-0.184895 -0.37016900000000003 0.063489500000000004
0.069370500000000002 0.20128499999999999 -0.25953399999999999
0.0020573200000000001 0.15837999999999999 0.27677800000000002
-0.095062400000000005 0.25215700000000002 0.193386
0.20946100000000001 0.22104199999999999 -0.176761
-0.21465699999999999 -0.44495800000000002 -0.18026900000000001
0.227353 0.17832200000000001 -0.167328
-0.079799400000000006 -0.157003 -0.069820999999999994
-0.054247999999999998 0.032764700000000001 0.248441
-0.208758 -0.087566699999999997 -0.22466
0.090001200000000003 -0.043523399999999997 -0.15849199999999999
0.0064062800000000003 0.307448 0.20496400000000001
0.077189900000000006 0.073526800000000003 0.28309400000000001
0.0221265 0.19384999999999999 0.23821200000000001
-0.071121799999999999 -0.184535 -0.225156
-0.0097754699999999996 0.35414800000000002 -0.17497699999999999
0.0109286 0.00090507399999999996 -0.210784
0.071094099999999993 -0.45588699999999999 -0.13563800000000001
-0.0020968599999999999 -0.166492 -0.0514709
0.18959000000000001 -0.044132400000000002 -0.058394500000000002
-0.238094 -0.30720599999999998 -0.24773899999999999
0.244701 0.121896 -0.14124600000000001
-0.16594300000000001 -0.0102313 -0.177925
0.16738 0.060225000000000001 -0.20477500000000001
-0.115518 0.33201900000000001 -0.12717400000000001
-0.21879699999999999 0.072627200000000003 -0.10868899999999999
0.15757699999999999 0.0050210200000000002 0.216028
0.27433400000000002 0.257988 -0.090571700000000005
0.18137500000000001 0.35938300000000001 0.058293400000000002
0.0133711 -0.498336 0.0144034
-0.019225900000000001 0.32652599999999998 -0.20172799999999999
-0.31636300000000001 0.25548900000000002 -0.073867299999999997
0.17624000000000001 0.340721 0.114317
-0.246558 0.108194 -0.16031799999999999
-0.28645799999999999 -0.31317 -0.044730600000000002
-0.277202 -0.36362800000000001 -0.0404109
0.0075099499999999996 -0.170158 -0.065637899999999999
-0.19070200000000001 -0.153553 -0.197072
0.0161841 0.39916499999999999 0.087500300000000003
-0.154504 -0.46486300000000003 0.105571
0.11203100000000001 0.19397500000000001 0.207592
-0.25593300000000002 -0.211951 -0.035205500000000001
0.088775800000000002 -0.0026161700000000001 -0.20550299999999999
-0.11677700000000001 -0.41701899999999997 -0.26001400000000002
-0.097370100000000001 0.36903200000000003 -0.048597300000000003
-0.0137941 0.40646599999999999 -0.022727500000000001
0.27049899999999999 0.100469 -0.0830457
-0.0045024699999999997 0.40439000000000003 0.052184899999999999
-0.078822000000000003 -0.069877499999999995 0.076070100000000002
0.11118 0.38031199999999998 0.11572399999999999
-0.062976599999999994 0.36626700000000001 0.11362700000000001
0.109121 -0.056955899999999997 -0.12539
0.11436399999999999 -0.100232 0.11860999999999999
-0.0018416999999999999 0.27244699999999999 -0.241421
-0.0533164 0.38341599999999998 0.082588700000000001
-0.11716699999999999 -0.033678100000000002 0.112066
0.15854699999999999 -0.035356800000000001 -0.12484000000000001
0.062351900000000002 -0.42510900000000001 -0.12518399999999999
-0.121603 0.094527600000000003 -0.21005299999999999
-0.091877299999999995 -0.43547200000000003 0.107447
0.25896200000000003 0.40918300000000002 0.000411388
0.062206900000000002 0.17560600000000001 0.240978
-0.15579899999999999 0.082530699999999999 0.12784200000000001
-0.057532199999999999 -0.16853299999999999 -0.15194099999999999
-0.0221534 -0.094431500000000002 -0.045706700000000003
-0.057409099999999998 -0.38220799999999999 -0.26993
0.0030627800000000002 0.100047 0.28184900000000002
0.10342 0.113409 -0.25174800000000003
0.056649900000000003 -0.23329900000000001 -0.116512
-0.077130799999999999 0.36628100000000002 -0.096754099999999996
-0.11919100000000001 0.0138047 0.16520499999999999
-0.28118500000000002 -0.122132 -0.27468500000000001
0.32068400000000002 0.39582800000000001 -0.049291799999999997
-0.23241800000000001 -0.0278686 -0.23600699999999999
-0.080341300000000004 0.202511 0.20649100000000001
0.221304 0.46984900000000002 -0.057180300000000003
-0.19506899999999999 0.34205200000000002 -0.074148500000000006
0.059402000000000003 0.40674199999999999 0.067640199999999998
0.19789499999999999 0.169714 -0.199575
0.030713899999999999 0.053966699999999999 -0.246167
-0.058382900000000001 -0.49720999999999999 -0.152006
-0.15631600000000001 0.107358 -0.193358
0.16014500000000001 -0.065569100000000005 -0.054111899999999998
-0.0567736 0.178341 0.21591399999999999
-0.175487 0.099572599999999997 -0.19042700000000001
0.091976699999999995 0.41419 -0.0206444
0.118938 -0.18418699999999999 0.149283
-0.18432100000000001 0.0083379100000000005 -0.20896500000000001
0.17016500000000001 -0.051130500000000002 0.11068
0.100105 -0.36954500000000001 -0.085837999999999998
0.0076906300000000004 -0.334926 -0.244701
-0.16564400000000001 0.31119599999999997 -0.123712
-0.070106299999999996 -0.076241500000000004 0.010227399999999999
-0.15166299999999999 -0.49696099999999999 -0.10231999999999999
-0.18509900000000001 0.21270700000000001 0.109426
-0.036963299999999998 -0.095334799999999997 0.071309300000000006
-0.11482000000000001 0.27478999999999998 0.17008000000000001
0.100274 0.30150500000000002 0.202097
0.072333900000000007 0.085813399999999998 -0.25443500000000002
-0.18570300000000001 0.32366600000000001 0.0019961100000000002
0.064504599999999995 0.16466900000000001 0.25455699999999998
-0.080389699999999994 0.20557900000000001 -0.23599999999999999
0.051312900000000002 0.41136200000000001 0.041831399999999998
0.22081600000000001 0.30751200000000001 0.079613299999999998
-0.0050058699999999999 0.26436900000000002 0.223387
0.141235 0.13833000000000001 -0.237288
-0.14457400000000001 0.034149800000000001 0.13785600000000001
-0.122589 -0.44386700000000001 -0.24371699999999999
0.075057399999999996 0.286719 -0.22681299999999999
-0.0015497600000000001 -0.38000299999999998 0.115689
0.293377 0.22806399999999999 -0.0109274
0.093138799999999994 -0.38745000000000002 -0.096582600000000005
-0.26996999999999999 -0.29076800000000003 -0.21632699999999999
0.0062140800000000003 -0.47465200000000002 -0.20344300000000001
-0.013901500000000001 -0.073945399999999994 -0.096704100000000001
0.25427699999999998 0.013814999999999999 0.033290800000000002
0.0141688 -0.0358085 -0.174426
0.237812 0.36447299999999999 -0.124727
-0.148343 -0.49583300000000002 -0.00639435
-0.076039399999999993 -0.30498199999999998 0.087650900000000004
-0.22947200000000001 -0.16608000000000001 -0.28384700000000002
0.11280800000000001 -0.17629500000000001 -0.057793400000000002
-0.063112799999999997 -0.43967499999999998 -0.23657500000000001
-0.022254400000000001 -0.49656699999999998 0.0103161
0.155977 0.345306 -0.146643
0.264714 0.091001299999999993 -0.095753699999999997
-0.255548 -0.34900999999999999 0.0169997
-0.054511299999999999 -0.24207899999999999 0.102643
-0.051507200000000003 -0.060003099999999997 0.15498500000000001
-0.214392 0.22655500000000001 -0.16653999999999999
-0.036782000000000002 -0.16562099999999999 0.023699600000000001
0.108235 -0.43736799999999998 0.016691600000000001
-0.234204 -0.069253200000000001 -0.16689999999999999
-0.29846 0.19774 -0.016388
-0.16161600000000001 0.0102805 -0.071994100000000005
0.048279200000000001 -0.199573 0.172847
0.215365 0.0153204 0.15884499999999999
-0.015285699999999999 -0.054926099999999999 -0.132637
-0.0010948500000000001 -0.32605400000000001 0.14255999999999999
-0.056046400000000003 0.088287000000000004 0.24453900000000001
-0.18695899999999999 0.23959900000000001 0.082482200000000006
-0.057562299999999997 -0.069347000000000006 -0.067775000000000002
-0.072044899999999995 -0.496446 -0.105112
0.074771699999999996 -0.35906900000000003 -0.10326399999999999
0.20410600000000001 0.26910000000000001 -0.16056300000000001
-0.32286900000000002 0.28716900000000001 -0.034969500000000001
0.014363600000000001 -0.13697300000000001 -0.045463099999999999
-0.061143400000000001 -0.315724 -0.28781899999999999
0.150782 0.26727099999999998 0.19454099999999999
0.093979499999999994 -0.055369500000000002 0.18385099999999999
0.27949299999999999 0.19537399999999999 0.057758499999999997
-0.16993800000000001 -0.28209899999999999 -0.28879500000000002
0.042928500000000001 0.0040291600000000004 0.25309100000000001
0.14741099999999999 -0.0289343 0.18540300000000001
-0.26370900000000003 -0.25479000000000002 -0.0077619000000000004
0.13470299999999999 -0.28429100000000002 -0.057126499999999997
0.199903 0.108028 0.20122899999999999
-0.15599299999999999 0.040390299999999997 0.122618
-0.15116399999999999 -0.16671900000000001 -0.031166099999999999
0.061354199999999998 -0.366448 0.10331600000000001
-0.12164800000000001 -0.31557099999999999 0.064099000000000003
-0.18013199999999999 -0.39901300000000001 0.062659599999999996
0.036977299999999998 -0.498894 -0.065627599999999994
0.033803100000000003 -0.066405099999999995 -0.12637399999999999
0.15370400000000001 0.41183799999999998 0.034081
-0.090806499999999998 -0.36292200000000002 0.062819799999999995
0.13158900000000001 -0.29896499999999998 0.113803
0.10294300000000001 0.285997 -0.217589
-0.196684 0.18687400000000001 0.089829800000000001
0.14827299999999999 -0.24468500000000001 -0.047380499999999999
-0.146177 -0.46328900000000001 -0.22726099999999999
-0.138154 0.27859299999999998 -0.16944999999999999
0.0066061100000000001 -0.105088 0.120605
0.120736 0.384299 0.099140800000000001
0.039951599999999997 -0.498554 -0.117386
0.10867 0.28535700000000003 0.207067
-0.21782899999999999 0.12660299999999999 0.0271331
-0.088312600000000005 0.37615100000000001 0.029226599999999998
0.164214 0.23366700000000001 0.19087699999999999
-0.031651600000000002 -0.41468899999999997 0.11917999999999999
-0.058190899999999997 -0.48980000000000001 0.0206083
-0.11216 -0.29570299999999999 0.058315499999999999
-0.233708 -0.387936 0.027282000000000001
0.022396200000000002 -0.20422000000000001 -0.120355
0.23502100000000001 0.49004999999999999 -0.023910500000000001
-0.155057 -0.15951000000000001 -0.21004700000000001
0.15010000000000001 0.37496000000000002 -0.125753
-0.13075000000000001 -0.15557799999999999 -0.060745100000000003
0.26340599999999997 0.39049299999999998 -1.8779300000000002e-05
0.105058 0.025902999999999999 -0.219747
-0.206451 0.091058100000000003 0.037632699999999998
0.159856 0.240282 -0.21013599999999999
0.11200499999999999 -0.22574 0.16225899999999999
0.20310300000000001 -0.0414642 -0.024492699999999999
-0.16395699999999999 0.30096099999999998 0.059866500000000003
0.25276799999999999 0.27778399999999998 0.055657100000000001
-0.050705300000000002 -0.40796100000000002 0.097125199999999995
0.30610799999999999 0.32488600000000001 0.0146231
-0.063070299999999996 -0.22975000000000001 0.084409799999999993
-0.28357399999999999 -0.278775 -0.19258500000000001
-0.20047999999999999 0.16189000000000001 -0.17416400000000001
-0.14547099999999999 0.33737299999999998 -0.081726999999999994
0.17330999999999999 -0.20499899999999999 0.0218824
0.174844 0.42890600000000001 -0.079675099999999999
-0.055968499999999997 0.149143 -0.25135200000000002
-0.24651799999999999 0.272096 -0.142958
0.16938 -0.47572300000000001 -0.066092799999999993
0.017926000000000001 0.36465799999999998 -0.16674
-0.033388500000000002 0.39736300000000002 -0.048812000000000001
0.17092199999999999 -0.227162 -0.0023979100000000001
0.042809399999999997 -0.26221499999999998 -0.14010400000000001
0.072904499999999997 -0.31561 -0.109844
0.11956 -0.49910199999999999 -0.074842599999999995
-0.296929 -0.20231299999999999 -0.23272100000000001
-0.21060899999999999 0.0052356299999999998 -0.13544100000000001
-0.239118 0.054418099999999997 -0.16358300000000001
-0.231187 -0.20823700000000001 -0.0097326600000000006
-0.050425499999999998 0.061484999999999998 -0.232541
-0.26930599999999999 -0.15918499999999999 -0.16877200000000001
0.24068899999999999 0.058567399999999999 0.154417
-0.13816300000000001 0.27687 0.14594299999999999
-0.080865199999999998 -0.483769 -0.028792000000000002
0.079266500000000004 -0.46635900000000002 0.042110599999999998
-0.25500200000000001 -0.32363599999999998 -0.21862500000000001
-0.086801900000000001 -0.0068021399999999999 0.192825
-0.084229299999999993 -0.49844699999999997 -0.079421400000000003
-0.23582400000000001 -0.115853 -0.27435900000000002
0.0044042400000000002 -0.204731 -0.15055499999999999
-0.24781400000000001 -0.286551 -0.24868499999999999
0.0363799 -0.33982200000000001 -0.19029099999999999
0.070383299999999996 0.036993999999999999 0.268067
-0.069579000000000002 0.34450599999999998 0.14269999999999999
0.10453800000000001 0.37803399999999998 -0.13017899999999999
-0.250384 -0.282474 0.019576400000000001
0.15113699999999999 0.15897 0.197439
-0.25792799999999999 -0.037614500000000002 -0.219337
0.164046 0.43960399999999999 -0.030729599999999999
-0.28215800000000002 -0.24751500000000001 -0.052944699999999997
-0.18007500000000001 -0.22011500000000001 -0.28236099999999997
-0.153532 -0.14280999999999999 -0.091050900000000004
0.108736 -0.48532799999999998 0.00403068
-0.046977199999999997 0.0082579999999999997 -0.19761999999999999
0.074046399999999998 -0.32250600000000001 0.135355
0.25197599999999998 0.22387399999999999 0.12058199999999999
-0.13349800000000001 -0.0275777 -0.0019284899999999999
0.024566899999999999 -0.498504 0.05006
0.0061060799999999998 0.094595799999999994 -0.25863799999999998
-0.27557100000000001 -0.057984099999999997 -0.20789199999999999
-0.087579599999999994 0.13406599999999999 -0.237065
0.087729600000000005 -0.10222000000000001 0.132935
-0.26109500000000002 -0.15339 -0.288887
0.14999599999999999 -0.29626599999999997 0.083647899999999997
0.0221219 0.214062 0.23430000000000001
0.28470099999999998 0.195744 0.025654799999999998
-0.20117699999999999 -0.43564000000000003 0.0391518
0.313332 0.367448 -0.067899299999999996
-0.085880100000000001 0.0216913 -0.19022
0.144704 0.062507199999999999 0.25445400000000001
-0.141266 0.155084 -0.206182
-0.032336400000000001 -0.17233000000000001 0.0834096
0.150036 -0.037291199999999997 0.16913500000000001
-0.25681500000000002 0.160915 -0.13025100000000001
-0.23788400000000001 0.167626 -0.00188663
0.28904200000000002 0.24537300000000001 -0.059360400000000001
-0.219168 0.166209 0.0056873899999999996
-0.184644 -0.43859399999999998 -0.22003400000000001
-0.014125499999999999 -0.48355199999999998 -0.203099
-0.027271900000000002 0.38301299999999999 -0.110916
-0.185007 -0.45523400000000003 0.063847200000000007
0.12046800000000001 0.411383 0.0255196
0.13033900000000001 0.101896 0.25717099999999998
-0.28032800000000002 -0.20244000000000001 -0.26194400000000001
-0.102724 -0.49670500000000001 0.020341000000000001
-0.148449 -0.014046599999999999 0.0050467200000000002
-0.137041 -0.17143800000000001 -0.022918399999999998
0.25987500000000002 0.19184100000000001 -0.111037
-0.087682200000000002 0.13844100000000001 0.181141
-0.0377037 -0.21692600000000001 0.113347
0.15522 0.31770500000000002 -0.16767299999999999
-0.11745899999999999 0.051229799999999999 0.16383300000000001
-0.191661 0.34509200000000001 -0.038834800000000003
0.134962 -0.068770200000000004 0.123404
0.061856599999999998 0.39261000000000001 0.107642
-0.28447699999999998 -0.33987499999999998 -0.112849
-0.24785199999999999 -0.17279 -0.116203
0.27274300000000001 0.050965000000000003 0.0044307000000000001
0.27048 0.054389300000000002 0.065723400000000001
-0.0050393699999999996 -0.26582800000000001 0.15615299999999999
0.012204 0.29835400000000001 -0.228269
0.060501399999999997 -0.17236899999999999 -0.072148299999999999
-0.21271100000000001 -0.23671900000000001 0.025987400000000001
0.022158400000000002 -0.37928699999999999 0.11397400000000001
0.17085500000000001 -0.27199600000000002 0.036077499999999998
0.20707999999999999 0.19420299999999999 0.16886599999999999
0.118855 -0.464611 -0.123044
-0.0137848 0.30544700000000002 0.20261999999999999
-0.27097399999999999 -0.19561899999999999 -0.124668
0.044715999999999999 -0.48884300000000003 0.093364199999999994
0.040994299999999997 -0.33457199999999998 -0.14569299999999999
-0.185168 0.28528300000000001 -0.147094
-0.23638500000000001 0.098763400000000001 -0.067155699999999999
-0.0070368399999999999 -0.39147900000000002 -0.234292
-0.013540699999999999 0.382496 0.116325
-0.098535399999999995 0.030391700000000001 0.19437199999999999
-0.019761399999999998 0.030345500000000001 0.26796300000000001
-0.042431999999999997 0.122516 -0.25356200000000001
-0.120556 0.359792 -8.6826100000000005e-05
-0.050679299999999997 0.310031 -0.20386099999999999
0.056844499999999999 -0.48934 -0.15511
-0.0088956399999999998 0.14102200000000001 0.28015099999999998
-0.171047 0.198127 0.138348
0.13383200000000001 0.087664000000000006 -0.23363200000000001
-0.027871300000000002 -0.20921500000000001 -0.21979799999999999
0.030146800000000001 -0.070478899999999997 0.17018900000000001
-0.24197399999999999 0.34187000000000001 -0.090676900000000005
0.27837899999999999 0.146679 0.078290899999999997
0.166265 -0.076817399999999994 0.0083643999999999993
-0.25886999999999999 0.33398299999999997 -0.098748100000000005
-0.24262900000000001 -0.42279600000000001 -0.145953
-0.019656 -0.13700000000000001 0.080151200000000006
0.031506899999999997 0.333482 -0.20166999999999999
0.28800500000000001 0.32066800000000001 0.017996499999999999
-0.058534200000000002 0.33773599999999998 0.15864400000000001
0.21967800000000001 -0.0070640399999999997 0.114499
-0.099865999999999996 0.35204999999999997 0.094411200000000001
-0.25380999999999998 -0.41042499999999998 -0.031191099999999999
0.25024999999999997 0.33181100000000002 -0.122972
-0.142762 -0.37184499999999998 -0.276005
-0.29980600000000002 -0.2135 -0.201461
0.017734199999999999 -0.49815500000000001 -0.145674
-0.186274 -0.246535 0.040674799999999997
0.16361100000000001 -0.068583400000000003 -0.039078000000000002
-0.111828 -0.0081551100000000001 -0.13830000000000001
0.00025914800000000001 0.40450399999999997 -0.057667599999999999
-0.039432500000000002 -0.16434499999999999 -0.017242899999999999
0.20283999999999999 -0.036591600000000002 0.076413300000000003
-0.099845600000000007 -0.424016 0.098271300000000006
0.11747 0.22531799999999999 0.21052599999999999
0.064806799999999998 0.314328 -0.21151
0.18179600000000001 0.0102065 0.19922899999999999
0.0362969 -0.37498999999999999 -0.167465
0.136156 -0.302367 -0.047743800000000003
-0.103521 -0.15225900000000001 -0.143647
0.020199999999999999 -0.40867700000000001 -0.18068500000000001
-0.18912999999999999 0.197381 -0.178198
-0.28357900000000003 -0.222607 -0.10405200000000001
-0.044096999999999997 0.087294499999999997 -0.245341
0.096312599999999998 -0.27294600000000002 -0.094200000000000006
0.12559899999999999 -0.24526400000000001 -0.068070199999999997
-0.149006 -0.25067800000000001 0.045536699999999999
0.049643899999999998 0.34490700000000002 0.17685799999999999
0.22503799999999999 0.44638299999999997 0.016437199999999999
0.28343299999999999 0.110278 -0.026751400000000002
-0.053759000000000001 -0.020480100000000001 -0.16384199999999999
0.0690307 0.34087600000000001 -0.18814600000000001
-0.077328300000000003 -0.26530999999999999 0.084282200000000002
-0.22916700000000001 -0.061282099999999999 -0.257104
0.00519471 -0.49157499999999998 -0.014508099999999999
-0.20144400000000001 -0.17294200000000001 -0.0349784
-0.045143900000000001 -0.497892 0.121909
0.236791 -0.0089181599999999996 0.0466209
-0.116023 -0.49726599999999999 -0.18576799999999999
-0.199766 0.24965899999999999 -0.0063999
-0.232877 -0.288881 -0.26077899999999998
-0.048780700000000003 0.394424 0.031482499999999997
-0.081498699999999993 -0.47135700000000003 -0.22258600000000001
0.012178899999999999 0.33998800000000001 -0.19520199999999999
0.240755 0.0181884 0.10889500000000001
-0.169154 0.26529399999999997 0.104349
0.070110000000000006 -0.28202700000000003 -0.116663
0.28516000000000002 0.47808499999999998 -0.0448777
-0.24551700000000001 -0.33439400000000002 0.029600499999999998
0.00563679 -0.354852 -0.24137500000000001
-0.23672000000000001 -0.00441334 -0.161768
-0.099713399999999994 -0.27689999999999998 -0.29409800000000003
-0.123297 0.23561199999999999 -0.203515
-0.184527 -0.194552 0.0014138499999999999
0.23037299999999999 0.036261799999999997 -0.124774
0.132934 -0.085784600000000003 -0.0532761
-0.21281700000000001 -0.47730499999999998 -0.143537
0.322156 0.33957500000000002 -0.037998499999999998
-0.035674400000000002 0.14613599999999999 0.24056900000000001
0.063114900000000002 0.40022000000000002 -0.093893299999999999
-0.011086199999999999 0.19614799999999999 0.23371600000000001
0.138903 -0.42648599999999998 -0.025489700000000001
0.036144500000000003 -0.41138799999999998 0.10566300000000001
0.30499500000000002 0.26093699999999997 0.0070984300000000002
-0.194776 0.27038800000000002 -0.0016546200000000001
-0.274316 0.15057000000000001 -0.072482099999999994
0.077219399999999994 0.336675 0.18254600000000001
-0.087465699999999993 -0.043455399999999998 -0.093054100000000001
0.166854 -0.204924 0.086530200000000002
-0.0033391200000000001 -0.32438699999999998 -0.25603799999999999
-0.27389999999999998 -0.076649300000000004 -0.25283499999999998
-0.18487200000000001 -0.19792899999999999 -0.27430900000000003
0.16912099999999999 -0.195524 0.071876300000000004
0.0021717199999999998 0.19397900000000001 -0.26311899999999999
0.22026100000000001 0.12701499999999999 -0.17572499999999999
0.219025 0.47630299999999998 0.0114124
0.25162400000000001 0.27231699999999998 -0.116838
-0.27112900000000001 0.22581300000000001 -0.135189
-0.235155 0.13109399999999999 -0.14668100000000001
0.023714300000000001 -0.037449400000000001 0.224161
-0.095092700000000002 -0.483205 0.107529
-0.218334 -0.201104 -0.28675800000000001
0.30217699999999997 0.46596599999999999 -0.041381000000000001
-0.12960099999999999 -0.17419899999999999 -0.235261
-0.30072500000000002 0.20827599999999999 -0.086110999999999993
-0.26413599999999998 -0.37038500000000002 -0.15787799999999999
-0.105931 -0.037298600000000001 -0.066776299999999997
0.0649671 -0.018637000000000001 0.240789
-0.20430300000000001 0.21674599999999999 0.0097004099999999996
-0.20940500000000001 -0.15876299999999999 -0.080487699999999995
-0.035080899999999998 -0.28869800000000001 -0.27616000000000002
-0.030562300000000001 0.402171 0.0041017700000000002
-0.22294600000000001 0.00086154600000000003 -0.21082100000000001
-0.14533599999999999 0.058651200000000001 -0.18823599999999999
-0.11661100000000001 -0.18690499999999999 0.00062090400000000003
-0.018209900000000001 -0.00045977700000000003 0.24760299999999999
0.064249200000000006 0.135488 -0.26442300000000002
-0.315882 0.24243000000000001 -0.0259916
-0.16242699999999999 0.0032026799999999998 -0.14369100000000001
0.060846400000000002 -0.094063599999999997 -0.079529799999999998
-0.093288099999999999 0.18945200000000001 -0.23233400000000001
0.12779799999999999 0.29922399999999999 -0.19747400000000001
-0.151727 -0.14325099999999999 -0.16134799999999999
0.20624999999999999 0.238595 0.16739200000000001
-0.12875700000000001 0.142287 -0.21401200000000001
0.211119 0.074411199999999997 0.20020299999999999
-0.058899300000000002 -0.078117900000000004 -0.020114199999999999
-0.19117899999999999 0.044562900000000003 0.0015814799999999999
0.00032059299999999998 0.40921600000000002 0.0118622
-0.059174200000000003 -0.497948 0.071480500000000002
-0.29381699999999999 -0.22692399999999999 -0.158272
0.00124416 -0.235286 -0.21235100000000001
-0.121488 -0.49698199999999998 0.054712900000000002
0.14940600000000001 -0.0086650200000000007 -0.16907
-0.14307800000000001 -0.22972600000000001 -0.28357300000000002
-0.0043539700000000004 0.34519 0.17180699999999999
0.032077599999999998 -0.28921599999999997 -0.16783200000000001
0.27612900000000001 0.47403400000000001 0.0053683699999999999
0.27934199999999998 0.44011800000000001 -0.0799869
0.0069007599999999997 -0.089342699999999997 0.131494
-0.0123695 -0.49738599999999999 -0.13835700000000001
-0.172295 0.27210400000000001 0.086420499999999997
-0.074211899999999997 -0.195965 0.034307999999999998
0.0068504200000000003 -0.150536 0.13650999999999999
0.00022326600000000001 -0.495811 0.137799
0.13381799999999999 -0.11199099999999999 -0.030956299999999999
-0.104202 -0.49559399999999998 -0.0872806
0.133546 0.33293899999999998 0.16661899999999999
0.16611000000000001 0.27154299999999998 -0.190967
-0.29421000000000003 -0.28222199999999997 -0.109612
-0.29083399999999998 -0.264154 -0.077683500000000003
0.13337499999999999 0.41676400000000002 -0.045350099999999997
-0.31476500000000002 0.30400100000000002 -0.077553899999999995
0.214333 -0.013635100000000001 -0.080933500000000005
0.18940000000000001 -0.045963299999999999 0.083999099999999993
0.23453599999999999 0.10427400000000001 0.173953
0.29849900000000001 0.24212400000000001 0.0087240500000000006
-0.11731800000000001 -0.31646299999999999 -0.29410599999999998
0.12929199999999999 -0.160998 -0.040079400000000001
-0.17053099999999999 -0.34703099999999998 -0.27454600000000001
0.157248 -0.078882900000000006 0.072725600000000001
-0.154443 0.217339 0.15438099999999999
0.052151900000000001 0.234349 0.230434
-0.0074366800000000002 -0.065761500000000001 0.17175799999999999
-0.19153999999999999 0.22997000000000001 -0.17139599999999999
-0.159775 -0.49612000000000001 -0.071419300000000005
-0.029372200000000001 -0.10306700000000001 -0.0147984
0.22364500000000001 0.27626899999999999 -0.13957900000000001
0.103362 -0.10299999999999999 -0.060717300000000002
-0.133437 0.20546900000000001 0.173316
-0.30526500000000001 -0.172794 -0.20523
-0.062273299999999997 0.34233799999999998 -0.16151499999999999
0.17364399999999999 0.30750100000000002 0.16064800000000001
0.018513600000000002 0.24282699999999999 -0.25420500000000001
0.11819399999999999 -0.38451400000000002 0.0092776500000000001
0.15217800000000001 0.0080590799999999997 -0.18327599999999999
0.19534000000000001 0.36083900000000002 0.026232999999999999
0.26177600000000001 0.221911 0.098979899999999996
0.053469299999999997 -0.270538 0.170318
0.075202099999999994 0.13781399999999999 0.27239200000000002
0.083136399999999999 0.27502900000000002 0.21712799999999999
0.13947000000000001 -0.41835099999999997 -0.0567135
0.26226100000000002 0.136124 0.12664900000000001
-0.047938700000000001 -0.0916439 0.034391100000000001
